x,y,z,nx,ny,nz,t1x,t1y,t1z,t2x,t2y,t2z
0.237008508756414,0.152316119834606,0.959492973614497,0.237008508756414,0.152316119834606,0.959492973614497,0.807176853779891,0.518741065597844,-0.28173255684143,-0.540640817455598,0.841253532831181,0
0.454815997677259,0.292292493499057,0.841253532831181,0.454815997677259,0.292292493499057,0.841253532831181,0.707707506500943,0.454815997677259,-0.540640817455598,-0.540640817455598,0.841253532831181,0
0.635776999361181,0.408589067670606,0.654860733945285,0.635776999361181,0.408589067670606,0.654860733945285,0.550903905943891,0.354044442519752,-0.755749574354258,-0.540640817455597,0.841253532831181,0
0.765231129668265,0.491784185552233,0.415415013001886,0.765231129668265,0.491784185552233,0.415415013001886,0.349469347278948,0.224590312212668,-0.909631995354518,-0.540640817455598,0.841253532831181,0
0.832690784854388,0.535137873473586,0.142314838273285,0.832690784854388,0.535137873473586,0.142314838273285,0.119722860471699,0.07694121050013,-0.989821441880933,-0.540640817455598,0.841253532831181,0
0.832690784854388,0.535137873473586,-0.142314838273285,0.832690784854388,0.535137873473586,-0.142314838273285,-0.119722860471699,-0.07694121050013,-0.989821441880933,-0.540640817455598,0.841253532831181,0
0.765231129668265,0.491784185552233,-0.415415013001886,0.765231129668265,0.491784185552233,-0.415415013001886,-0.349469347278948,-0.224590312212668,-0.909631995354518,-0.540640817455598,0.841253532831181,0
0.635776999361181,0.408589067670606,-0.654860733945285,0.635776999361181,0.408589067670606,-0.654860733945285,-0.550903905943891,-0.354044442519751,-0.755749574354258,-0.540640817455597,0.841253532831181,0
0.454815997677259,0.292292493499057,-0.841253532831181,0.454815997677259,0.292292493499057,-0.841253532831181,-0.707707506500943,-0.454815997677259,-0.540640817455598,-0.540640817455597,0.841253532831181,0
0.237008508756414,0.152316119834606,-0.959492973614497,0.237008508756414,0.152316119834606,-0.959492973614497,-0.807176853779891,-0.518741065597844,-0.28173255684143,-0.540640817455598,0.841253532831181,0
0.117035933763337,0.256272947836,0.959492973614497,0.117035933763337,0.256272947836,0.959492973614497,0.398587786109285,0.872785508117596,-0.28173255684143,-0.909631995354518,0.415415013001887,0
0.224590312212668,0.491784185552233,0.841253532831181,0.224590312212668,0.491784185552233,0.841253532831181,0.349469347278948,0.765231129668265,-0.540640817455598,-0.909631995354518,0.415415013001886,0
0.313949719256544,0.687453993308192,0.654860733945285,0.313949719256544,0.687453993308192,0.654860733945285,0.272038980306306,0.595682276097974,-0.755749574354258,-0.909631995354518,0.415415013001886,0
0.377874787177129,0.827430366972642,0.415415013001886,0.377874787177129,0.827430366972642,0.415415013001886,0.172569633027357,0.377874787177129,-0.909631995354518,-0.909631995354518,0.415415013001886,0
0.411186687148514,0.900373253222839,0.142314838273285,0.411186687148514,0.900373253222839,0.142314838273285,0.0591197203916581,0.129454130307084,-0.989821441880933,-0.909631995354518,0.415415013001886,0
0.411186687148514,0.900373253222839,-0.142314838273285,0.411186687148514,0.900373253222839,-0.142314838273285,-0.0591197203916581,-0.129454130307084,-0.989821441880933,-0.909631995354518,0.415415013001886,0
0.377874787177129,0.827430366972643,-0.415415013001886,0.377874787177129,0.827430366972643,-0.415415013001886,-0.172569633027357,-0.377874787177129,-0.909631995354518,-0.909631995354518,0.415415013001886,0
0.313949719256544,0.687453993308192,-0.654860733945285,0.313949719256544,0.687453993308192,-0.654860733945285,-0.272038980306306,-0.595682276097974,-0.755749574354258,-0.909631995354518,0.415415013001886,0
0.224590312212668,0.491784185552233,-0.841253532831181,0.224590312212668,0.491784185552233,-0.841253532831181,-0.349469347278948,-0.765231129668265,-0.540640817455598,-0.909631995354518,0.415415013001886,0
0.117035933763337,0.256272947836,-0.959492973614497,0.117035933763337,0.256272947836,-0.959492973614497,-0.398587786109285,-0.872785508117596,-0.28173255684143,-0.909631995354518,0.415415013001887,0
-0.0400947232632071,0.278864925637586,0.959492973614497,-0.0400947232632071,0.278864925637586,0.959492973614497,-0.136550087364301,0.949726718617726,-0.28173255684143,-0.989821441880933,-0.142314838273285,0
-0.07694121050013,0.535137873473586,0.841253532831181,-0.07694121050013,0.535137873473586,0.841253532831181,-0.119722860471699,0.832690784854388,-0.540640817455598,-0.989821441880933,-0.142314838273285,0
-0.10755437844933,0.748057133388233,0.654860733945285,-0.10755437844933,0.748057133388233,0.654860733945285,-0.093196399442948,0.648195195904928,-0.755749574354258,-0.989821441880933,-0.142314838273285,0
-0.129454130307084,0.900373253222839,0.415415013001886,-0.129454130307084,0.900373253222839,0.415415013001886,-0.0591197203916581,0.411186687148514,-0.909631995354518,-0.989821441880933,-0.142314838273285,0
-0.140866278420715,0.979746486807249,0.142314838273285,-0.140866278420715,0.979746486807249,0.142314838273285,-0.0202535131927513,0.140866278420715,-0.989821441880933,-0.989821441880933,-0.142314838273285,0
-0.140866278420715,0.979746486807249,-0.142314838273285,-0.140866278420715,0.979746486807249,-0.142314838273285,0.0202535131927513,-0.140866278420715,-0.989821441880933,-0.989821441880933,-0.142314838273285,0
-0.129454130307084,0.900373253222839,-0.415415013001886,-0.129454130307084,0.900373253222839,-0.415415013001886,0.059119720391658,-0.411186687148514,-0.909631995354518,-0.989821441880933,-0.142314838273285,0
-0.10755437844933,0.748057133388233,-0.654860733945285,-0.10755437844933,0.748057133388233,-0.654860733945285,0.093196399442948,-0.648195195904928,-0.755749574354258,-0.989821441880933,-0.142314838273285,0
-0.07694121050013,0.535137873473586,-0.841253532831181,-0.07694121050013,0.535137873473586,-0.841253532831181,0.119722860471699,-0.832690784854388,-0.540640817455598,-0.989821441880933,-0.142314838273285,0
-0.0400947232632071,0.278864925637586,-0.959492973614497,-0.0400947232632071,0.278864925637586,-0.959492973614497,0.136550087364301,-0.949726718617726,-0.28173255684143,-0.989821441880933,-0.142314838273285,0
-0.18449558894946,0.212919259914647,0.959492973614497,-0.18449558894946,0.212919259914647,0.959492973614497,-0.628334272916534,0.725136406405058,-0.28173255684143,-0.755749574354258,-0.654860733945285,0
-0.354044442519751,0.408589067670606,0.841253532831181,-0.354044442519751,0.408589067670606,0.841253532831181,-0.550903905943891,0.635776999361181,-0.540640817455598,-0.755749574354258,-0.654860733945285,0
-0.494910720940466,0.571157419136643,0.654860733945285,-0.494910720940466,0.571157419136643,0.654860733945285,-0.428842580863357,0.494910720940466,-0.755749574354258,-0.755749574354258,-0.654860733945285,0
-0.595682276097974,0.687453993308192,0.415415013001886,-0.595682276097974,0.687453993308192,0.415415013001886,-0.272038980306305,0.313949719256544,-0.909631995354518,-0.755749574354258,-0.654860733945285,0
-0.648195195904928,0.748057133388233,0.142314838273285,-0.648195195904928,0.748057133388233,0.142314838273285,-0.093196399442948,0.10755437844933,-0.989821441880933,-0.755749574354258,-0.654860733945285,0
-0.648195195904928,0.748057133388233,-0.142314838273285,-0.648195195904928,0.748057133388233,-0.142314838273285,0.093196399442948,-0.10755437844933,-0.989821441880933,-0.755749574354258,-0.654860733945285,0
-0.595682276097974,0.687453993308192,-0.415415013001886,-0.595682276097974,0.687453993308192,-0.415415013001886,0.272038980306305,-0.313949719256544,-0.909631995354518,-0.755749574354258,-0.654860733945285,0
-0.494910720940466,0.571157419136643,-0.654860733945285,-0.494910720940466,0.571157419136643,-0.654860733945285,0.428842580863357,-0.494910720940466,-0.755749574354258,-0.755749574354258,-0.654860733945285,0
-0.354044442519752,0.408589067670606,-0.841253532831181,-0.354044442519752,0.408589067670606,-0.841253532831181,0.550903905943891,-0.635776999361181,-0.540640817455598,-0.755749574354258,-0.654860733945285,0
-0.18449558894946,0.212919259914647,-0.959492973614497,-0.18449558894946,0.212919259914647,-0.959492973614497,0.628334272916534,-0.725136406405058,-0.28173255684143,-0.755749574354258,-0.654860733945285,0
-0.270320408727799,0.0793732335844094,0.959492973614497,-0.270320408727799,0.0793732335844094,0.959492973614497,-0.920626766415591,0.270320408727799,-0.28173255684143,-0.28173255684143,-0.959492973614497,0
-0.518741065597844,0.152316119834606,0.841253532831181,-0.518741065597844,0.152316119834606,0.841253532831181,-0.807176853779891,0.237008508756414,-0.540640817455598,-0.28173255684143,-0.959492973614497,0
-0.725136406405058,0.212919259914647,0.654860733945285,-0.725136406405058,0.212919259914647,0.654860733945285,-0.628334272916534,0.18449558894946,-0.755749574354258,-0.28173255684143,-0.959492973614497,0
-0.872785508117595,0.256272947836,0.415415013001886,-0.872785508117596,0.256272947836,0.415415013001886,-0.398587786109285,0.117035933763337,-0.909631995354518,-0.28173255684143,-0.959492973614497,0
-0.949726718617726,0.278864925637586,0.142314838273285,-0.949726718617726,0.278864925637586,0.142314838273285,-0.136550087364301,0.0400947232632072,-0.989821441880933,-0.28173255684143,-0.959492973614497,0
-0.949726718617726,0.278864925637586,-0.142314838273285,-0.949726718617726,0.278864925637586,-0.142314838273285,0.136550087364301,-0.0400947232632071,-0.989821441880933,-0.28173255684143,-0.959492973614497,0
-0.872785508117596,0.256272947836,-0.415415013001886,-0.872785508117596,0.256272947836,-0.415415013001886,0.398587786109285,-0.117035933763337,-0.909631995354518,-0.28173255684143,-0.959492973614497,0
-0.725136406405058,0.212919259914647,-0.654860733945285,-0.725136406405058,0.212919259914647,-0.654860733945285,0.628334272916534,-0.18449558894946,-0.755749574354258,-0.28173255684143,-0.959492973614497,0
-0.518741065597844,0.152316119834606,-0.841253532831181,-0.518741065597844,0.152316119834606,-0.841253532831181,0.807176853779891,-0.237008508756414,-0.540640817455598,-0.28173255684143,-0.959492973614497,0
-0.270320408727799,0.0793732335844094,-0.959492973614497,-0.270320408727799,0.0793732335844094,-0.959492973614497,0.920626766415591,-0.270320408727799,-0.28173255684143,-0.28173255684143,-0.959492973614497,0
-0.270320408727799,-0.0793732335844093,0.959492973614497,-0.270320408727799,-0.0793732335844093,0.959492973614497,-0.920626766415591,-0.270320408727799,-0.28173255684143,0.281732556841429,-0.959492973614497,0
-0.518741065597844,-0.152316119834606,0.841253532831181,-0.518741065597844,-0.152316119834606,0.841253532831181,-0.807176853779891,-0.237008508756414,-0.540640817455598,0.281732556841429,-0.959492973614497,0
-0.725136406405058,-0.212919259914647,0.654860733945285,-0.725136406405058,-0.212919259914647,0.654860733945285,-0.628334272916534,-0.18449558894946,-0.755749574354258,0.281732556841429,-0.959492973614497,0
-0.872785508117596,-0.256272947836,0.415415013001886,-0.872785508117596,-0.256272947836,0.415415013001886,-0.398587786109285,-0.117035933763337,-0.909631995354518,0.281732556841429,-0.959492973614497,0
-0.949726718617726,-0.278864925637585,0.142314838273285,-0.949726718617726,-0.278864925637586,0.142314838273285,-0.136550087364301,-0.0400947232632071,-0.989821441880933,0.281732556841429,-0.959492973614497,0
-0.949726718617726,-0.278864925637586,-0.142314838273285,-0.949726718617726,-0.278864925637586,-0.142314838273285,0.136550087364301,0.0400947232632071,-0.989821441880933,0.281732556841429,-0.959492973614497,0
-0.872785508117596,-0.256272947836,-0.415415013001886,-0.872785508117596,-0.256272947836,-0.415415013001886,0.398587786109285,0.117035933763337,-0.909631995354518,0.281732556841429,-0.959492973614497,0
-0.725136406405058,-0.212919259914647,-0.654860733945285,-0.725136406405058,-0.212919259914647,-0.654860733945285,0.628334272916534,0.18449558894946,-0.755749574354258,0.281732556841429,-0.959492973614497,0
-0.518741065597844,-0.152316119834606,-0.841253532831181,-0.518741065597844,-0.152316119834606,-0.841253532831181,0.807176853779891,0.237008508756414,-0.540640817455598,0.281732556841429,-0.959492973614497,0
-0.270320408727799,-0.0793732335844093,-0.959492973614497,-0.270320408727799,-0.0793732335844093,-0.959492973614497,0.920626766415591,0.270320408727799,-0.28173255684143,0.281732556841429,-0.959492973614497,0
-0.18449558894946,-0.212919259914647,0.959492973614497,-0.18449558894946,-0.212919259914647,0.959492973614497,-0.628334272916534,-0.725136406405058,-0.28173255684143,0.755749574354258,-0.654860733945285,0
-0.354044442519752,-0.408589067670606,0.841253532831181,-0.354044442519752,-0.408589067670606,0.841253532831181,-0.550903905943891,-0.635776999361181,-0.540640817455598,0.755749574354258,-0.654860733945285,0
-0.494910720940466,-0.571157419136642,0.654860733945285,-0.494910720940466,-0.571157419136642,0.654860733945285,-0.428842580863358,-0.494910720940466,-0.755749574354258,0.755749574354258,-0.654860733945285,0
-0.595682276097974,-0.687453993308192,0.415415013001886,-0.595682276097974,-0.687453993308192,0.415415013001886,-0.272038980306306,-0.313949719256544,-0.909631995354518,0.755749574354258,-0.654860733945285,0
-0.648195195904928,-0.748057133388233,0.142314838273285,-0.648195195904928,-0.748057133388233,0.142314838273285,-0.0931963994429481,-0.10755437844933,-0.989821441880933,0.755749574354258,-0.654860733945285,0
-0.648195195904928,-0.748057133388233,-0.142314838273285,-0.648195195904928,-0.748057133388233,-0.142314838273285,0.093196399442948,0.10755437844933,-0.989821441880933,0.755749574354258,-0.654860733945285,0
-0.595682276097974,-0.687453993308192,-0.415415013001886,-0.595682276097974,-0.687453993308192,-0.415415013001886,0.272038980306305,0.313949719256544,-0.909631995354518,0.755749574354258,-0.654860733945285,0
-0.494910720940466,-0.571157419136642,-0.654860733945285,-0.494910720940467,-0.571157419136643,-0.654860733945285,0.428842580863358,0.494910720940466,-0.755749574354258,0.755749574354258,-0.654860733945285,0
-0.354044442519752,-0.408589067670606,-0.841253532831181,-0.354044442519752,-0.408589067670606,-0.841253532831181,0.550903905943891,0.635776999361181,-0.540640817455598,0.755749574354258,-0.654860733945285,0
-0.18449558894946,-0.212919259914647,-0.959492973614497,-0.18449558894946,-0.212919259914647,-0.959492973614497,0.628334272916534,0.725136406405058,-0.28173255684143,0.755749574354258,-0.654860733945285,0
-0.0400947232632072,-0.278864925637586,0.959492973614497,-0.0400947232632072,-0.278864925637586,0.959492973614497,-0.136550087364301,-0.949726718617726,-0.28173255684143,0.989821441880933,-0.142314838273285,0
-0.0769412105001301,-0.535137873473586,0.841253532831181,-0.0769412105001301,-0.535137873473586,0.841253532831181,-0.119722860471699,-0.832690784854388,-0.540640817455598,0.989821441880933,-0.142314838273285,0
-0.10755437844933,-0.748057133388233,0.654860733945285,-0.10755437844933,-0.748057133388233,0.654860733945285,-0.0931963994429481,-0.648195195904928,-0.755749574354258,0.989821441880933,-0.142314838273285,0
-0.129454130307084,-0.900373253222839,0.415415013001886,-0.129454130307084,-0.900373253222839,0.415415013001886,-0.0591197203916582,-0.411186687148514,-0.909631995354518,0.989821441880933,-0.142314838273285,0
-0.140866278420715,-0.979746486807249,0.142314838273285,-0.140866278420715,-0.979746486807249,0.142314838273285,-0.0202535131927513,-0.140866278420715,-0.989821441880933,0.989821441880933,-0.142314838273285,0
-0.140866278420715,-0.979746486807249,-0.142314838273285,-0.140866278420715,-0.979746486807249,-0.142314838273285,0.0202535131927513,0.140866278420715,-0.989821441880933,0.989821441880933,-0.142314838273285,0
-0.129454130307084,-0.900373253222839,-0.415415013001886,-0.129454130307084,-0.900373253222839,-0.415415013001886,0.0591197203916581,0.411186687148514,-0.909631995354518,0.989821441880933,-0.142314838273285,0
-0.10755437844933,-0.748057133388233,-0.654860733945285,-0.10755437844933,-0.748057133388233,-0.654860733945285,0.0931963994429481,0.648195195904928,-0.755749574354258,0.989821441880933,-0.142314838273285,0
-0.0769412105001301,-0.535137873473586,-0.841253532831181,-0.0769412105001301,-0.535137873473586,-0.841253532831181,0.119722860471699,0.832690784854388,-0.540640817455598,0.989821441880933,-0.142314838273285,0
-0.0400947232632072,-0.278864925637586,-0.959492973614497,-0.0400947232632072,-0.278864925637586,-0.959492973614497,0.136550087364301,0.949726718617726,-0.28173255684143,0.989821441880933,-0.142314838273285,0
0.117035933763337,-0.256272947836,0.959492973614497,0.117035933763337,-0.256272947836,0.959492973614497,0.398587786109285,-0.872785508117596,-0.28173255684143,0.909631995354519,0.415415013001886,0
0.224590312212667,-0.491784185552233,0.841253532831181,0.224590312212667,-0.491784185552233,0.841253532831181,0.349469347278948,-0.765231129668265,-0.540640817455598,0.909631995354519,0.415415013001886,0
0.313949719256544,-0.687453993308192,0.654860733945285,0.313949719256544,-0.687453993308192,0.654860733945285,0.272038980306305,-0.595682276097974,-0.755749574354258,0.909631995354519,0.415415013001886,0
0.377874787177129,-0.827430366972643,0.415415013001886,0.377874787177129,-0.827430366972643,0.415415013001886,0.172569633027357,-0.377874787177129,-0.909631995354518,0.909631995354518,0.415415013001886,0
0.411186687148513,-0.900373253222839,0.142314838273285,0.411186687148513,-0.900373253222839,0.142314838273285,0.0591197203916581,-0.129454130307084,-0.989821441880933,0.909631995354518,0.415415013001886,0
0.411186687148513,-0.90037325322284,-0.142314838273285,0.411186687148513,-0.90037325322284,-0.142314838273285,-0.059119720391658,0.129454130307084,-0.989821441880933,0.909631995354519,0.415415013001886,0
0.377874787177129,-0.827430366972643,-0.415415013001886,0.377874787177129,-0.827430366972643,-0.415415013001886,-0.172569633027357,0.377874787177129,-0.909631995354518,0.909631995354519,0.415415013001886,0
0.313949719256544,-0.687453993308192,-0.654860733945285,0.313949719256544,-0.687453993308192,-0.654860733945285,-0.272038980306305,0.595682276097974,-0.755749574354258,0.909631995354519,0.415415013001886,0
0.224590312212667,-0.491784185552233,-0.841253532831181,0.224590312212667,-0.491784185552233,-0.841253532831181,-0.349469347278948,0.765231129668265,-0.540640817455598,0.909631995354519,0.415415013001886,0
0.117035933763337,-0.256272947836,-0.959492973614497,0.117035933763337,-0.256272947836,-0.959492973614497,-0.398587786109285,0.872785508117596,-0.28173255684143,0.909631995354519,0.415415013001886,0
0.237008508756414,-0.152316119834606,0.959492973614497,0.237008508756414,-0.152316119834606,0.959492973614497,0.807176853779891,-0.518741065597844,-0.28173255684143,0.540640817455597,0.841253532831181,0
0.454815997677259,-0.292292493499057,0.841253532831181,0.454815997677259,-0.292292493499057,0.841253532831181,0.707707506500943,-0.454815997677259,-0.540640817455598,0.540640817455597,0.841253532831181,0
0.635776999361181,-0.408589067670606,0.654860733945285,0.635776999361181,-0.408589067670606,0.654860733945285,0.550903905943891,-0.354044442519751,-0.755749574354258,0.540640817455597,0.841253532831181,0
0.765231129668265,-0.491784185552233,0.415415013001886,0.765231129668265,-0.491784185552233,0.415415013001886,0.349469347278948,-0.224590312212668,-0.909631995354518,0.540640817455598,0.841253532831181,0
0.832690784854388,-0.535137873473586,0.142314838273285,0.832690784854388,-0.535137873473586,0.142314838273285,0.119722860471699,-0.07694121050013,-0.989821441880933,0.540640817455597,0.841253532831181,0
0.832690784854388,-0.535137873473586,-0.142314838273285,0.832690784854388,-0.535137873473586,-0.142314838273285,-0.119722860471699,0.0769412105001299,-0.989821441880933,0.540640817455597,0.841253532831181,0
0.765231129668265,-0.491784185552233,-0.415415013001886,0.765231129668265,-0.491784185552233,-0.415415013001886,-0.349469347278948,0.224590312212667,-0.909631995354518,0.540640817455597,0.841253532831181,0
0.635776999361181,-0.408589067670606,-0.654860733945285,0.635776999361181,-0.408589067670606,-0.654860733945285,-0.550903905943891,0.354044442519751,-0.755749574354258,0.540640817455597,0.841253532831181,0
0.454815997677259,-0.292292493499057,-0.841253532831181,0.454815997677259,-0.292292493499057,-0.841253532831181,-0.707707506500943,0.454815997677259,-0.540640817455598,0.540640817455597,0.841253532831181,0
0.237008508756414,-0.152316119834606,-0.959492973614497,0.237008508756414,-0.152316119834606,-0.959492973614497,-0.807176853779891,0.518741065597844,-0.28173255684143,0.540640817455597,0.841253532831181,0