x,y,z,nx,ny,nz,t1x,t1y,t1z,t2x,t2y,t2z
-0.4492753623188406,0.24637681159420288,0.08197413426585726,0.08462710375150485,-0.11080458546061517,1.0,0.9963428389620432,0.009410170951315307,-0.08492582605852621,-1.734723475976807e-18,1.0035298656550804,0.11119571076125802
-0.42028985507246375,0.24637681159420288,0.0852589076798643,0.08529271970737946,-0.1157911454128764,1.0,0.9962804390215824,0.009911511539219722,-0.08559818200155334,0.0,1.0035813407665022,0.1162058329623435
-0.3913043478260869,0.24637681159420288,0.08868355517715483,0.08611027421932758,-0.12045589720717807,1.0,0.996204033730967,0.010410308941972648,-0.08642423644952343,0.0,1.0036460484308314,0.1208950852421747
-0.3623188405797101,0.24637681159420288,0.0922387489850344,0.08707750917355342,-0.12479884084352014,1.0,0.9961134216704558,0.010907643216405917,-0.08740179910871558,-1.734723475976807e-18,1.00372415263413,0.12526361077538392
-0.33333333333333337,0.24637681159420288,0.09591516133080857,0.08819216645626131,-0.12881997632190267,1.0,0.9960083396073975,0.011404264642588442,-0.0885286969319946,0.0,1.0038158771833798,0.12931153753031296
-0.30434782608695654,0.24637681159420288,0.09970346444178277,0.08945198795365542,-0.1325193036423256,1.0,0.9958884663656059,0.011900601101663879,-0.08980277419645996,0.0,1.0039215030412325,0.13303897849458096
-0.2753623188405797,0.24637681159420288,0.10359433054526257,0.09085471555194008,-0.13589682280478893,1.0,0.9957534265588983,0.01239676538550215,-0.09122189268037321,1.734723475976807e-18,1.0040413656704832,0.13644603155919996
-0.24637681159420288,0.24637681159420288,0.10757843186855354,0.09239809113731956,-0.1389525338092927,1.0,0.9956027941954941,0.012892562438098075,-0.09278393192737777,-1.734723475976807e-18,1.004175852393799,0.13953277908022466
-0.21739130434782605,0.24637681159420288,0.11164644063896116,0.09407985659599809,-0.14168643665583688,1.0,0.9954360961560677,0.013387496527508813,-0.09448678958613152,-1.734723475976807e-18,1.0043253997705472,0.14229928713643766
-0.18840579710144922,0.24637681159420288,0.11578902908379085,0.0958977538141799,-0.14409853134442152,1.0,0.9952528155447166,0.013880778346119583,-0.09632838181356626,0.0,1.0044904909891923,0.14474560450097948
-0.1594202898550725,0.24637681159420288,0.11999686943034828,0.09784952467806932,-0.14618881787504656,1.0,0.9950523949089501,0.014371332036161049,-0.0983066437300615,0.0,1.004671653270633,0.14687176134420252
-0.13043478260869568,0.24637681159420288,0.12426063390593887,0.09993291107387058,-0.147957296247712,1.0,0.9948342393219829,0.01485780213666739,-0.10041952991484968,0.0,1.0048694552750435,0.1486777676844066
-0.10144927536231885,0.24637681159420288,0.1285709947378682,0.10214565488778792,-0.14940396646241788,1.0,0.994597719318134,0.015338560447457412,-0.10266501492994687,0.0,1.0050845045022179,0.15016361160254527
-0.07246376811594202,0.24637681159420288,0.13291862415344172,0.10448549800602559,-0.1505288285191642,1.0,0.9943421736699537,0.015811712805239866,-0.10504109386081377,0.0,1.0053174446730986,0.15132925723652116
-0.04347826086956519,0.24637681159420288,0.13729419437996507,0.10695018231478791,-0.1513318824179509,1.0,0.994066911993821,0.01627510576658698,-0.10754578286179065,0.0,1.005568953078076,0.1521746425703534
-0.01449275362318836,0.24637681159420288,0.14168837764474368,0.10953744970027911,-0.1518131281587781,1.0,0.9937712171691484,0.016726333192286707,-0.11017711969410836,0.0,1.0058397378757635,0.15269967703332504
0.01449275362318847,0.24637681159420288,0.146091846175083,0.11224504204870342,-0.1519725657416456,1.0,0.9934543475549937,0.017162742727476494,-0.11293316424395487,0.0,1.0061305353242496,0.1529042389242416
0.04347826086956519,0.24637681159420288,0.15049527219828868,0.11507070124626514,-0.1518101951665536,1.0,0.9931155389867795,0.017581442171982414,-0.11581199900766552,3.469446951953614e-18,1.0064421069253233,0.15278817267617076
0.07246376811594213,0.24637681159420288,0.15488932794166627,0.11801216917916856,-0.151326016433502,1.0,0.9927540065349608,0.017979305735441726,-0.11881172953060896,0.0,1.0067752364607967,0.15235128597750938
0.10144927536231885,0.24637681159420288,0.15926468563252105,0.12106718773361785,-0.15052002954249086,1.0,0.9923689460068333,0.018352980172082384,-0.12193048478575708,3.469446951953614e-18,1.0071307268988416,0.15159334676596395
0.13043478260869557,0.24637681159420288,0.1636120174981588,0.12423349879581733,-0.14939223449352013,1.0,0.991959535172234,0.018698890790476333,-0.1251664174772578,0.0,1.0075093971471716,0.15051408011303538
0.1594202898550725,0.24637681159420288,0.16792199576588496,0.12750884425197126,-0.14794263128658977,1.0,0.9915249346936261,0.019013247334185645,-0.1285177042535751,3.469446951953614e-18,1.0079120786289162,0.149113165017898
0.18840579710144922,0.24637681159420288,0.172185292663005,0.13089096598828387,-0.14617121992169987,1.0,0.9910642887409928,0.019292049729993384,-0.1319825458139272,0.0,1.0083396116561707,0.14739023113115557
0.21739130434782616,0.24637681159420288,0.17639258041682448,0.13437760589095948,-0.1440780003988504,1.0,0.9905767252720454,0.019531093701366496,-0.13555916689084152,-3.469446951953614e-18,1.0087928415754097,0.14534485543085934
0.24637681159420288,0.24637681159420288,0.1805345312546489,0.1379665058462023,-0.14166297271804135,1.0,0.9900613559585036,0.019725976245952175,-0.1392458160906572,0.0,1.0092726146582345,0.14297655887539573
0.2753623188405798,0.24637681159420288,0.1846018174037838,0.1416554077402166,-0.13892613687927272,1.0,0.989517275739595,0.019872100977276215,-0.1430407655727528,0.0,1.009779773710276,0.14028480306039484
0.30434782608695654,0.24637681159420288,0.1885851110915347,0.14544205345920663,-0.13586749288254452,1.0,0.9889435619844543,0.01996468333241021,-0.14694231054715487,0.0,1.010315153370473,0.1372689869096896
0.33333333333333326,0.24637681159420288,0.19247508454520704,0.14932418488937663,-0.13248704072785672,1.0,0.9883392732457735,0.019998755649221562,-0.15094876856900483,0.0,1.0108795750723953,0.13392844343357493
0.3623188405797102,0.24637681159420288,0.19626240999210645,0.1532995439169309,-0.12878478041520927,1.0,0.9877034475878509,0.01996917211893573,-0.1550584786071305,-3.469446951953614e-18,1.0114738416387772,0.13026243659117806
0.3913043478260869,0.24637681159420288,0.19993775965953842,0.15736587242807376,-0.12476071194460236,1.0,0.987035100473118,0.01987061362214352,-0.15926979986268985,0.0,1.012098731479955,0.1262701582976681
0.42028985507246386,0.24637681159420288,0.2034918057748084,0.1615209123090094,-0.12041483531603582,1.0,0.9863332221922934,0.019697592459098818,-0.1635811103125402,-3.469446951953614e-18,1.0127549923664956,0.12195072562130467
0.4492753623188406,0.24637681159420288,0.20691522056522202,0.16576240544594198,-0.11574715052950971,1.0,0.9855967748245068,0.019444456988195413,-0.16799080495064156,0.0,1.0134433347459253,0.1173031782199649
0.4782608695652175,0.24637681159420288,0.21019867625808478,0.170088093725076,-0.11075765758502402,1.0,0.9848246887151012,0.019105396189905862,-0.1724972936994397,3.469446951953614e-18,1.0141644245731736,0.11232647607178847
0.5072463768115942,0.24637681159420288,0.21333284508070208,0.17449571903261551,-0.10544635648257877,1.0,0.9840158584603189,0.018674444177234198,-0.17709899896180367,0.0,1.0149188756241152,0.10701949755995849
0.536231884057971,0.24637681159420288,0.21630839926037954,0.17898302325476487,-0.09981324722217394,1.0,0.9831691383897839,0.018145484677898414,-0.18179435278273678,-3.469446951953614e-18,1.0157072412614814,0.10138103797738451
0.5652173913043479,0.24637681159420288,0.21911601102442269,0.18354774827772832,-0.09385832980380951,1.0,0.9822833375395718,0.017512255518038165,-0.1865817935887389,0.0,1.0165300056224047,0.095409808523176
0.5942028985507246,0.24637681159420288,0.2217463526001371,0.1881876359877101,-0.08758160422748551,1.0,0.9813572141107876,0.016768353142259773,-0.19145976247141414,3.469446951953614e-18,1.0173875741970515,0.08910443586928771
0.6231884057971016,0.24637681159420288,0.2241900962148281,0.19290042827091447,-0.0809830704932019,1.0,0.9803894694109484,0.015907237210300913,-0.19642669898069923,3.469446951953614e-18,1.0182802637681674,0.08246346238257372
0.6521739130434783,0.24637681159420288,0.2264379140958013,0.19768386701354576,-0.07406272860095878,1.0,0.9793787412781509,0.014922235316538381,-0.20148103639197013,0.0,1.0192082916820124,0.07548534709469173
0.681159420289855,0.24637681159420288,0.2284804784703623,0.20253569410180813,-0.0668205785507561,1.0,0.9783235969910334,0.013806547884985957,-0.20662119641030452,0.0,1.0201717644221404,0.06816846751983308
0.7101449275362319,0.24637681159420288,0.23030846156581652,0.20745365142190592,-0.059256620342593755,1.0,0.9772225256709667,0.012553253299344891,-0.21184558327437367,-1.734723475976807e-18,1.0211706654588388,0.06051112242808824
0.7391304347826086,0.24637681159420288,0.23191253560946956,0.21243548086004338,-0.05137085397647186,1.0,0.9760739301867976,0.011155313335078586,-0.21715257722185777,-1.734723475976807e-18,1.0222048423489207,0.052511535690348846
0.7681159420289856,0.24637681159420288,0.23328337282862688,0.21747892430242466,-0.04316327945239035,1.0,0.9748761185768776,0.009605578968381984,-0.22254052727798543,0.0,1.0232739930629884,0.04416786131894111
0.7971014492753623,0.24637681159420288,0.23441164545059404,0.2225817236352542,-0.03463389677034933,1.0,0.973627295008119,0.007896796645291809,-0.22800774332885324,0.0,1.0243776515204397,0.03547818983661179
0.8260869565217392,0.24637681159420288,0.23528802570267646,0.22774162074473617,-0.025782705930348676,1.0,0.9723255502975136,0.006021615103009877,-0.23355248744166407,0.0,1.0255151723164428,0.026440556114945692
0.855072463768116,0.24637681159420288,0.2359031858121799,0.2329563575170748,-0.0166097069323885,1.0,0.9709688520280064,0.003972592844751995,-0.23917296439502742,0.0,1.026685714630033,0.017052948831674703
0.8840579710144927,0.24637681159420288,0.23624779800640955,0.23822367583847434,-0.00711489977646875,1.0,0.9695550342979312,0.001742206379031126,-0.24486731138408444,0.0,1.0278882253085322,0.007313321704482535
0.9130434782608696,0.24637681159420288,0.23631253451267123,0.24354131759513914,0.002701715537410663,1.0,0.9680817871514901,-0.0006771406558371091,-0.25063358686758114,0.0,1.0291214211308166,-0.0027803933333512697
0.9420289855072463,0.24637681159420288,0.23608806755827028,0.24890702467327339,0.012840139009249567,1.0,0.9665466457470911,-0.0032931073511584343,-0.2564697585272403,-4.336808689942018e-19,1.0303837702607794,-0.013230270843023077
0.9710144927536233,0.24637681159420288,0.23556506937051222,0.2543185389590814,0.02330037063904815,1.0,0.9649469793308423,-0.006113404230251662,-0.2623736903140268,0.0,1.031673472912808,-0.02403837429734243
1.0,0.24637681159420288,0.23473421217670262,0.25977360233876745,0.034082410426806195,1.0,0.9632799800942384,-0.0091457806428401,-0.2683431285613192,-1.734723475976807e-18,1.0329884412634673,-0.03520673602128828
-1.0,0.2753623188405798,0.055547341672504455,0.10296879022966215,0.04229904611821421,1.0,0.9946185504681064,-0.004378465800057639,-0.10351216402897194,8.673617379884035e-19,1.005277072772224,-0.04252226126277569
-0.9710144927536232,0.2753623188405798,0.05447996288601581,0.10025726353030781,0.031403300531516055,1.0,0.994905798571308,-0.0031641751135271005,-0.10075931701355927,0.0,1.0050076519702702,-0.03156055733129569
-0.9420289855072463,0.2753623188405798,0.05372377582244471,0.0977585929650589,0.02082681723690472,1.0,0.9951621928508662,-0.0020457008078254902,-0.09822436066709932,4.336808689942018e-19,1.0047644681445742,-0.02092604594418282
-0.9130434782608696,0.2753623188405798,0.05326952650231036,0.09546994535119059,0.010569596234380212,1.0,0.9953900763668685,-0.0010136660687806974,-0.09590395378429868,2.168404344971009e-19,1.0045460215936186,-0.010617645847097535
-0.8840579710144928,0.2753623188405798,0.05310796094613196,0.09338848750597831,0.0006316375239424688,1.0,0.9955915476604745,-5.924432267233121e-05,-0.09379481178152319,0.0,1.0043509032686588,-0.0006343857177099978
-0.855072463768116,0.2753623188405798,0.0532298251744288,0.09151138624669736,-0.008987058894408468,1.0,0.9957684798205453,0.0008258541164758852,-0.09189370250925047,0.0,1.0041777999245085,0.00902460502837908
-0.8260869565217391,0.2753623188405798,0.05362586520772005,0.08983580839062306,-0.0182864930206726,1.0,0.9959225376056157,0.0016493948979053022,-0.09019744223458738,0.0,1.0040254977435263,0.018360105257064326
-0.7971014492753623,0.2753623188405798,0.05428682706652493,0.08835892075503071,-0.027266664854849926,1.0,0.9960551928474166,0.0024186320234652592,-0.08870289184029255,0.0,1.003892884638275,0.027372810835600368
-0.7681159420289855,0.2753623188405798,0.05520345677136266,0.08707789015719566,-0.03592757439694044,1.0,0.9961677383407272,0.003140319816546526,-0.08740695327358233,0.0,1.0037789514168594,0.036063342955112085
-0.7391304347826086,0.2753623188405798,0.056366500342752514,0.08598988341439327,-0.04426922164694415,1.0,0.9962613004043688,0.003820724511661011,-0.08630656626701164,0.0,1.0036827919755658,0.04443225598119006
-0.7101449275362319,0.2753623188405798,0.05776670380121367,0.08509206734389879,-0.052291606604861034,1.0,0.996336850279565,0.00446563550444533,-0.08539870534462034,0.0,1.0036036026658313,0.05248004477782291
-0.681159420289855,0.2753623188405798,0.05939481316726536,0.08438160876298757,-0.05999472927069117,1.0,0.996395214514615,0.005080376299798271,-0.08468037711906393,8.673617379884035e-19,1.0035406809665781,0.06020715146671491
-0.6521739130434783,0.2753623188405798,0.0612415744614268,0.08385567448893497,-0.06737858964443443,1.0,0.9964370844687913,0.005669815193240753,-0.0841486178793754,0.0,1.003493423578378,0.06761397159817614
-0.6231884057971014,0.2753623188405798,0.06329773370421726,0.08351143133901626,-0.07444318772609093,1.0,0.9964630250535012,0.006238375717603702,-0.08380049146414065,8.673617379884035e-19,1.0034613240425845,0.07470085972157389
-0.5942028985507246,0.2753623188405798,0.06555403691615587,0.0833460461305068,-0.08118852351566062,1.0,0.9964734828149782,0.006790046883957694,-0.0836330874110298,0.0,1.0034439699763746,0.08146813435307473
-0.5652173913043479,0.2753623188405798,0.06800123011776193,0.08335668568068189,-0.08761459701314349,1.0,0.9964687934500377,0.007328393242421755,-0.08364351937066362,-8.673617379884035e-19,1.0034410400034441,0.08791608234635136
-0.536231884057971,0.2753623188405798,0.07063005932955467,0.08354051680681686,-0.09372140821853958,1.0,0.996449188834656,0.007856564785222077,-0.08382892377056626,0.0,1.0034523004498084,0.09404496267828913
-0.5072463768115942,0.2753623188405798,0.07343127057205324,0.08389470632618708,-0.09950895713184885,1.0,0.9964148036342961,0.008377306711188408,-0.08418645871334497,0.0,1.0034776018646938,0.09985500966672431
-0.4782608695652174,0.2753623188405798,0.07639560986577694,0.08441642105606777,-0.1049772437530713,1.0,0.996365681554909,0.0088929690678311,-0.08471330309213725,0.0,1.0035168754177852,0.10534643564105332
-0.4492753623188406,0.2753623188405798,0.07951382323124494,0.08510282781373439,-0.11012626808220696,1.0,0.9963017812843831,0.009405516284273994,-0.08540665590568249,0.0,1.0035701292160712,0.11051943308934414
-0.42028985507246375,0.2753623188405798,0.08277665668897652,0.08595109341646215,-0.11495603011925584,1.0,0.9962229821658082,0.009916536605653982,-0.08626373575502327,0.0,1.0036374445761411,0.11537417630750785
-0.3913043478260869,0.2753623188405798,0.08617485625949084,0.0869583846815264,-0.11946652986421788,1.0,0.9961290896362581,0.010427251437154181,-0.08728178050375687,0.0,1.0037189722809923,0.11991082257728924
-0.3623188405797101,0.2753623188405798,0.08969916796330712,0.08812186842620251,-0.12365776731709313,1.0,0.9960198404578118,0.01093852460362095,-0.08845804708386422,0.0,1.003814928844175,0.12412951290043739
-0.33333333333333337,0.2753623188405798,0.09334033782094467,0.08943871146776579,-0.12752974247788154,1.0,0.9958949077612081,0.011450871528729015,-0.08978981142940069,0.0,1.0039255927983874,0.12803037231653291
-0.30434782608695654,0.2753623188405798,0.09708911185292261,0.0909060806234915,-0.13108245534658322,1.0,0.9957539059168132,0.011964468335900032,-0.09127436852068316,-1.734723475976807e-18,1.0040513010204126,0.13161350983168704
-0.2753623188405797,0.2753623188405798,0.10093623607976022,0.092521142710655,-0.13431590592319803,1.0,0.995596395242451,0.01247916087164233,-0.09290903252201513,0.0,1.0041924450995292,0.13487901798477459
-0.24637681159420288,0.2753623188405798,0.10487245652197674,0.09428106454653166,-0.13723009420772608,1.0,0.9954218865530673,0.012994473650655546,-0.09469113699642095,-1.734723475976807e-18,1.0043494677522113,0.1378269720771155
-0.21739130434782605,0.2753623188405798,0.10888851920009136,0.09618301294839676,-0.1398250202001673,1.0,0.9952298455531383,0.013509618720923494,-0.09661803518128388,0.0,1.0045228592820283,0.14045742909063944
-0.18840579710144922,0.2753623188405798,0.11297517013462327,0.09822415473352561,-0.14210068390052175,1.0,0.995019697069167,0.01402350444609331,-0.09868710030917607,0.0,1.0047131540801386,0.14277042631863796
-0.1594202898550725,0.2753623188405798,0.11712315534609177,0.10040165671919357,-0.14405708530878933,1.0,0.9947908291165012,0.014534744201697833,-0.10089572595851366,0.0,1.0049209271586217,0.14476597973227726
-0.13043478260869568,0.2753623188405798,0.12132322085501603,0.10271268572267597,-0.14569422442497015,1.0,0.994542596792037,0.01504166498121438,-0.10324132641895191,0.0,1.0051467907060991,0.1464440821051729
-0.10144927536231885,0.2753623188405798,0.12556611268191528,0.10515440856124807,-0.1470121012490641,1.0,0.9942743259821128,0.015542315907558044,-0.10572133705664578,0.0,1.0053913906526089,0.1478047009175587
-0.07246376811594202,0.2753623188405798,0.12984257684730874,0.10772399205218526,-0.1480107157810713,1.0,0.9939853168730093,0.016034476645375932,-0.10833321466462725,-3.469446951953614e-18,1.0056554032285292,0.1488477760609565
-0.04347826086956519,0.2753623188405798,0.1341433593717157,0.11041860301276284,-0.14869006802099172,1.0,0.9936748472499607,0.016515665709435884,-0.11107443778359317,-3.469446951953614e-18,1.0059395315004531,0.1495732173638069
-0.01449275362318836,0.2753623188405798,0.13845920627565528,0.11323540826025613,-0.14905015796882534,1.0,0.9933421755693895,0.016983148664487514,-0.1139425069783531,0.0,1.0062445018652804,0.149980901958282
0.01449275362318847,0.2753623188405798,0.14278086357964673,0.11617157461194046,-0.14909098562457207,1.0,0.9929865437882034,0.017433946212212923,-0.11693494505505228,0.0,1.0065710604824096,0.15007067150849318
0.04347826086956519,0.2753623188405798,0.14709907730420932,0.11922426888509112,-0.14881255098823204,1.0,0.9926071799334123,0.017864842161281928,-0.12004929720406891,0.0,1.0069199696227364,0.14984232932055253
0.07246376811594213,0.2753623188405798,0.1514045934698623,0.12239065789698352,-0.14821485405980522,1.0,0.9922033003950049,0.018272391277083744,-0.12328313105318559,0.0,1.0072920039122044,0.14929563735545612
0.10144927536231885,0.2753623188405798,0.15568815809712472,0.12566790846489287,-0.14729789483929157,1.0,0.99177411192496,0.018652927008429663,-0.12663403661526068,3.469446951953614e-18,1.0076879464468664,0.1484303131665522
0.13043478260869557,0.2753623188405798,0.15994051720651603,0.12905318740609456,-0.1460616733266912,1.0,0.9913188133254364,0.019002569089414712,-0.1300996261141847,0.0,1.008108584755813,0.14724602678443657
0.1594202898550725,0.2753623188405798,0.1641524168185553,0.13254366153786395,-0.14450618952200397,1.0,0.9908365968095599,0.019317231015697874,-0.13367753367239982,3.469446951953614e-18,1.0085547065878508,0.1457423975734931
0.18840579710144922,0.2753623188405798,0.16831460295376174,0.1361364976774763,-0.1426314434252299,1.0,0.9903266490188091,0.019592627395720836,-0.13736541484270726,0.0,1.009027095497509,0.14391899108597697
0.21739130434782616,0.2753623188405798,0.1724178216326547,0.13982886264220692,-0.14043743503636907,1.0,0.9897881516817568,0.019824281178841056,-0.14116094596648796,0.0,1.009526526205749,0.1417753159415112
0.24637681159420288,0.2753623188405798,0.17645281887575334,0.1436179232493312,-0.13792416435542137,1.0,0.9892202818998664,0.020007530764019656,-0.14506182333982887,0.0,1.010053759710694,0.13931082076214907
0.2753623188405798,0.2753623188405798,0.18041034070357687,0.14750084631612445,-0.13509163138238695,1.0,0.9886222120471231,0.020137536994587552,-0.1490657621683963,0.0,1.0106095381237197,0.13652489119573386
0.30434782608695654,0.2753623188405798,0.1842811331366445,0.15147479865986194,-0.13193983611726567,1.0,0.9879931092715398,0.020209290046725947,-0.15317049529123491,0.0,1.011194579206411,0.1334168470631613
0.33333333333333326,0.2753623188405798,0.18805594219547547,0.155536947097819,-0.12846877856005762,1.0,0.987332134587961,0.020217616221651916,-0.15737377165301233,-3.469446951953614e-18,1.01180957058414,0.12998593966832087
0.3623188405797102,0.2753623188405798,0.191725513900589,0.15968445844727103,-0.12467845871076272,1.0,0.9866384415531243,0.020157184654105927,-0.16167335450358658,-3.469446951953614e-18,1.0124551636123833,0.12623134931294502
0.3913043478260869,0.2753623188405798,0.19528059427250438,0.16391449952549328,-0.12056887656938106,1.0,0.9859111745156249,0.020022513952608578,-0.1660670193031671,0.0,1.013131966872394,0.12215218306233194
0.42028985507246386,0.2753623188405798,0.19871192933174067,0.16822423714976112,-0.11614003213591258,1.0,0.9851494664352389,0.0198079787900955,-0.17055255131077685,0.0,1.0138405392734398,0.11774747281190825
0.4492753623188406,0.2753623188405798,0.20201026509881725,0.1726108381373498,-0.11139192541035726,1.0,0.9843524362680415,0.01950781646696356,-0.17512774283323154,-3.469446951953614e-18,1.0145813827395878,0.11301617370886531
0.4782608695652175,0.2753623188405798,0.20516634759425337,0.17707146930553477,-0.10632455639271517,1.0,0.9835191859158846,0.019116133472272635,-0.1797903901114454,0.0,1.0153549344599335,0.10795716298760681
0.5072463768115942,0.2753623188405798,0.20817092283856803,0.18160329747159124,-0.10093792508298627,1.0,0.9826487967410982,0.018626912072851547,-0.18453828982057438,-3.469446951953614e-18,1.0161615586822828,0.10256923928248281
0.536231884057971,0.2753623188405798,0.21101473685228067,0.18620348945279455,-0.09523203148117061,1.0,0.9817403256497687,0.018034016964355547,-0.1893692351603489,0.0,1.0170015380316324,0.09685112248622736
0.5652173913043479,0.2753623188405798,0.21368853565591042,0.1908692120664201,-0.08920687558726807,1.0,0.9807928007496467,0.017331202022914684,-0.19428101151194513,0.0,1.0178750643363987,0.0908014542276396
0.5942028985507246,0.2753623188405798,0.21618306526997655,0.19559763212974313,-0.08286245740127877,1.0,0.9798052165916561,0.016512117200892445,-0.19927139163794122,0.0,1.0187822289472361,0.08441879904732018
0.6231884057971016,0.2753623188405798,0.21848907171499823,0.20038591646003898,-0.07619877692320264,1.0,0.9787765290071659,0.01557031561543156,-0.20433813040233165,0.0,1.019723012535568,0.07770164635565392
0.6521739130434783,0.2753623188405798,0.22059730101149472,0.205231231874583,-0.06921583415303972,1.0,0.9777056495566614,0.014499260883883246,-0.20947895898826624,0.0,1.0206972743616285,0.07064841326267417
0.681159420289855,0.2753623188405798,0.22249849917998524,0.21013074519065056,-0.06191362909079002,1.0,0.9765914396092473,0.013292334765873524,-0.2146915785921977,0.0,1.0217047410049829,0.0632574483748842
0.7101449275362319,0.2753623188405798,0.22418341224098895,0.21508162322551688,-0.05429216173645344,1.0,0.9754327040765809,0.01194284517762514,-0.21997365357449644,-1.734723475976807e-18,1.022744994554231,0.0555270366594865
0.7391304347826086,0.2753623188405798,0.22564278621502515,0.2200810327964573,-0.04635143209003012,1.0,0.9742281848294024,0.010444034650184548,-0.22532280404839938,0.0,1.0238174602569678,0.04745540548168796
0.7681159420289856,0.2753623188405798,0.22686736712261302,0.22512614072074716,-0.038091440151519954,1.0,0.9729765538298418,0.008789089309347199,-0.2307365978914423,0.0,1.0249213936361772,0.03904073192570486
0.7971014492753623,0.2753623188405798,0.22784790098427185,0.23021411381566187,-0.02951218592092305,1.0,0.9716764060181922,0.006971148461267862,-0.23621254216637255,0.0,1.0260558670851683,0.030281151514671395
0.8260869565217392,0.2753623188405798,0.2285751338205208,0.23534211889847667,-0.02061366939823926,1.0,0.9703262519988818,0.0049833148739016325,-0.24174807394200706,0.0,1.0272197559600194,0.02117476844869985
0.855072463768116,0.2753623188405798,0.2290398116518791,0.2405073227864669,-0.011395890583468724,1.0,0.9689245105770027,0.002818665850451895,-0.24734055050868511,0.0,1.0284117241963775,0.011719667483698333
0.8840579710144927,0.2753623188405798,0.2292326804988659,0.2457068922969078,-0.0018588494766113937,1.0,0.967469501203993,0.00047026519678209543,-0.25298723898794084,0.0,1.029630209486495,0.001913927576007251
0.9130434782608696,0.2753623188405798,0.22914448638200066,0.25093799424707486,0.007997453922332825,1.0,0.9659594363989707,-0.0020688238098563578,-0.2586853053418894,0.0,1.0308734080626567,-0.008244362580739299
0.9420289855072463,0.2753623188405798,0.22876597532180235,0.25619779545424326,0.018173019613363775,1.0,0.964392414220785,-0.004805524338584604,-0.2644318027946659,-8.673617379884035e-19,1.0321392591447696,-0.018757087000160655
0.9710144927536233,0.2753623188405798,0.22808789333879032,0.26148346273568834,0.028667847596481572,1.0,0.9627664108751268,-0.007746730692847258,-0.27022365968619216,0.0,1.0334254291229825,-0.029626082704426234
1.0,0.2753623188405798,0.22710098645348373,0.26679216290868557,0.03948193787168612,1.0,0.9610792735509953,-0.010899291649112446,-0.2760576667876455,-1.734723475976807e-18,1.0347292955607965,-0.04085311776134491
-1.0,0.30434782608695654,0.052579080567892504,0.10179235861284797,0.03944937251907633,1.0,0.9947436057760968,-0.00403636035464399,-0.10231747926262068,-8.673617379884035e-19,1.0051587433175602,-0.03965288170594105
-0.9710144927536232,0.30434782608695654,0.05159105887766491,0.09902998211525812,0.028776814550454347,1.0,0.9950320479421703,-0.00286369398986645,-0.09951393281718307,0.0,1.0048869109292748,-0.02891744427999068
-0.9420289855072463,0.30434782608695654,0.05090780491605013,0.09649791107516953,0.01842039924479287,1.0,0.9952880443395575,-0.0017857833465361904,-0.0969459631577204,0.0,1.004643127271448,-0.018505927502877325
-0.9130434782608696,0.30434782608695654,0.05052015512760001,0.09419273985227924,0.008380126602091911,1.0,0.9955141354226499,-0.0007928404773913562,-0.09460960615958253,0.0,1.004425673443166,-0.008417214305845157
-0.8840579710144928,0.30434782608695654,0.05041894595686642,0.09211106280628452,-0.0013440033776486047,1.0,0.9957125871229044,0.0001243216084020674,-0.0925009642606507,0.0,1.0042329492515591,0.0013496924757401153
-0.855072463768116,0.30434782608695654,0.050595013848401274,0.09024947429688253,-0.010751990694428627,1.0,0.9958854125119234,0.0009743045494969507,-0.0906162009609818,0.0,1.0040634770114327,0.010795681161442574
-0.8260869565217391,0.30434782608695654,0.0510391952467564,0.08860456868377042,-0.01984383534824816,1.0,0.9960343912680573,0.0017651396272867904,-0.08895153564366877,0.0,1.0039159037175236,0.01992154189685829
-0.7971014492753623,0.30434782608695654,0.05174232659648369,0.08717294032664537,-0.0286195373391072,1.0,0.9961610872130909,0.0025043022088847974,-0.08750323875651164,0.0,1.0037890018236004,0.028727976818275682
-0.7681159420289855,0.30434782608695654,0.052695244342134975,0.08595118358520451,-0.037079096667005755,1.0,0.996266864158532,0.003198725694830382,-0.0862676273793023,4.336808689942018e-19,1.0036816688368704,0.03721560962170398
-0.7391304347826086,0.30434782608695654,0.05388878492826217,0.08493589281914515,-0.04522251333194381,1.0,0.9963529002760116,0.0038548150260665683,-0.08524106118939753,0.0,1.0035929259129845,0.04538499447194444
-0.7101449275362319,0.30434782608695654,0.05531378479941714,0.08412366238816434,-0.053049787333921364,1.0,0.9964202011832224,0.004478459801589736,-0.08441993882840877,0.0,1.0035219156160529,0.05323662420836099
-0.681159420289855,0.30434782608695654,0.05696108040015172,0.08351108665195932,-0.06056091867293848,1.0,0.9964696119155209,0.00507504705433948,-0.08380069466494493,-8.673617379884035e-19,1.0034678989891794,0.06077093782158814
-0.6521739130434783,0.30434782608695654,0.0588215081750178,0.08309475997022718,-0.06775590734899506,1.0,0.9965018279337178,0.005649473728631981,-0.08337979594211385,0.0,1.0034302520638942,0.06798832719001997
-0.6231884057971014,0.30434782608695654,0.06088590456856728,0.08287127670266518,-0.07463475336209116,1.0,0.9965174053005325,0.006206158897953691,-0.08315374029367333,-8.673617379884035e-19,1.003408461921271,0.0748891430769293
-0.5942028985507246,0.30434782608695654,0.06314510602535198,0.08283723120897049,-0.08119745671222679,1.0,0.9965167701416329,0.006749055757385795,-0.08311905360909555,-8.673617379884035e-19,1.0034021224033203,0.08147370039880009
-0.5652173913043479,0.30434782608695654,0.06558994898992379,0.08298921784884024,-0.0874440173994019,1.0,0.9965002274919825,0.007281663420451075,-0.08327228822518486,0.0,1.0034109295602738,0.08774228278321862
-0.536231884057971,0.30434782608695654,0.06821126990683461,0.08332383098197162,-0.09337443542361659,1.0,0.9964679696143149,0.007807038545857546,-0.08361002142009163,0.0,1.0034346769075217,0.09369514644071895
-0.5072463768115942,0.30434782608695654,0.07099990522063625,0.0838376649680618,-0.09898871078487072,1.0,0.9964200838638564,0.008327806815527285,-0.08412885418445204,-1.734723475976807e-18,1.0034732505551194,0.09933252337955482
-0.4782608695652174,0.30434782608695654,0.07394669137588061,0.08452731416680795,-0.10428684348316439,1.0,0.9963565601618471,0.008846174281492735,-0.08482541024382259,0.0,1.003526624262855,0.10465462399568869
-0.4492753623188406,0.30434782608695654,0.07704246481711959,0.0853893729379073,-0.10926883351849757,1.0,0.9962772981299022,0.009363938595746857,-0.08569633530645938,0.0,1.0035948544647975,0.10966163907253475
-0.42028985507246375,0.30434782608695654,0.08027806198890503,0.08642043564105699,-0.11393468089087026,1.0,0.9961821139277306,0.00988250013396575,-0.08673829651071283,0.0,1.0036780752989496,0.11435374122634867
-0.3913043478260869,0.30434782608695654,0.08364431933578878,0.08761709663595414,-0.11828438560028247,1.0,0.9960707468281569,0.010402873021189382,-0.08794798204679129,-1.734723475976807e-18,1.0037764936700877,0.11873108583377215
-0.3623188405797101,0.30434782608695654,0.08713207330232274,0.088975950282296,-0.12231794764673418,1.0,0.9959428655556737,0.01092569606504552,-0.08932210092831155,0.0,1.0038903843669813,0.12279381147806027
-0.33333333333333337,0.30434782608695654,0.09073216033305875,0.09049359093977974,-0.12603536703022544,1.0,0.9957980744078709,0.01145124359992702,-0.09085738288984246,0.0,1.0040200852489634,0.12654203995007132
-0.30434782608695654,0.30434782608695654,0.09443541687254874,0.09216661296810247,-0.12943664375075614,1.0,0.9956359191729782,0.01197943624367052,-0.09255057838750969,1.734723475976807e-18,1.0041659925111939,0.12997587583929587
-0.2753623188405797,0.30434782608695654,0.09823267936534454,0.09399161072696141,-0.13252177780832636,1.0,0.9954558928513623,0.012509851566720962,-0.0943984586806152,0.0,1.0043285560328958,0.13309540574914866
-0.24637681159420288,0.30434782608695654,0.102114784255998,0.09596517857605374,-0.13529076920293617,1.0,0.9952574411841131,0.013041734672484255,-0.09639781597310347,0.0,1.0045082748083136,0.13590069716953113
-0.21739130434782605,0.30434782608695654,0.10607256798906105,0.09808391087507665,-0.13774361793458545,1.0,0.9950399679877753,0.013574008686554135,-0.09854546359454884,0.0,1.0047056924561262,0.13839179703837975
-0.18840579710144922,0.30434782608695654,0.11009686700908548,0.10034440198372722,-0.13988032400327421,1.0,0.9948028402907964,0.014105285151731253,-0.10083823620111922,-1.734723475976807e-18,1.0049213927994916,0.14056873002261447
-0.1594202898550725,0.30434782608695654,0.1141785177606232,0.10274324626170274,-0.14170088740900252,1.0,0.9945453932643317,0.014633874325218055,-0.10327298997767842,0.0,1.0051559955057907,0.1424314965476499
-0.13043478260869568,0.30434782608695654,0.1183083566882261,0.10527703806870035,-0.14320530815177032,1.0,0.9942669349376301,0.015157795374057965,-0.10584660282280593,0.0,1.0054101517724492,0.14398007060349177
-0.10144927536231885,0.30434782608695654,0.122477220236446,0.10794237176441718,-0.14439358623157766,1.0,0.9939667506862832,0.01567478646477984,-0.10855597449903835,0.0,1.0056845400429069,0.14521439735445002
-0.07246376811594202,0.30434782608695654,0.1266759448498348,0.11073584170855044,-0.1452657216484245,1.0,0.9936441074801252,0.016182314743298058,-0.111398026731061,0.0,1.0059798617348608,0.14613439057869687
-0.04347826086956519,0.30434782608695654,0.13089536697294443,0.11365404226079732,-0.14582171440231081,1.0,0.9932982578764822,0.016677586201397494,-0.11436970323490592,0.0,1.006296836961297,0.14673992996331897
-0.01449275362318836,0.30434782608695654,0.13512632305032668,0.11669356778085499,-0.1460615644932367,1.0,0.9929284437437578,0.017157555426594903,-0.11746796966144625,0.0,1.0066362002235252,0.14703085828017515
0.01449275362318847,0.30434782608695654,0.13935964952653343,0.11985101262842056,-0.14598527192120203,1.0,0.9925338996999822,0.017618935232810228,-0.12068981343762088,0.0,1.0069986960544162,0.1470069784677998
0.04347826086956519,0.30434782608695654,0.14358618284611652,0.12312297116319128,-0.1455928366862069,1.0,0.9921138562509002,0.018058206170101263,-0.12403224348888624,0.0,1.0073850745892883,0.14666805064480062
0.07246376811594213,0.30434782608695654,0.1477967594536279,0.1265060377448643,-0.14488425878825134,1.0,0.9916675426124253,0.018471625912712487,-0.12749228982638347,0.0,1.007796087041381,0.14601378908069051
0.10144927536231885,0.30434782608695654,0.15198221579361942,0.12999680673313677,-0.14385953822733524,1.0,0.9911941892027948,0.018855238525866066,-0.13106700298224172,0.0,1.0082324810585688,0.14504385915088622
0.13043478260869557,0.30434782608695654,0.1561333883106429,0.1335918724877059,-0.14251867500345863,1.0,0.9906930297905171,0.019204883613081744,-0.13475345327632102,0.0,1.0086949959378855,0.14375787430368653
0.1594202898550725,0.30434782608695654,0.1602411134492503,0.13728782936826886,-0.14086166911662157,1.0,0.9901633032851783,0.01951620534735668,-0.1385487298975487,0.0,1.0091843576745434,0.1421553930684218
0.18840579710144922,0.30434782608695654,0.16429622765399335,0.14108127173452278,-0.13888852056682405,1.0,0.9896042551593538,0.01978466139127112,-0.14244993978283496,0.0,1.0097012738224223,0.14023591613563394
0.21739130434782616,0.30434782608695654,0.16828956736942405,0.1449687939461649,-0.13659922935406596,1.0,0.9890151384912342,0.02000553171301477,-0.1464542062763789,0.0,1.0102464281434638,0.13799888354209494
0.24637681159420288,0.30434782608695654,0.17221196904009417,0.14894699036289238,-0.13399379547834744,1.0,0.9883952146191088,0.020173927307457654,-0.15055866755201838,3.469446951953614e-18,1.0108204750240293,0.1354436719956958
0.2753623188405798,0.30434782608695654,0.1760542691105557,0.15301245534440241,-0.1310722189396684,1.0,0.9877437534005412,0.020284798833721602,-0.15476047478114754,-3.469446951953614e-18,1.0114240336370701,0.13256959237772056
0.30434782608695654,0.30434782608695654,0.17980730402536035,0.157161783250392,-0.12783449973802888,1.0,0.9870600330709163,0.020332945183248553,-0.15905679002864515,0.0,1.0120576818299014,0.12937588746275464
0.33333333333333326,0.30434782608695654,0.18346191022906008,0.16139156844055857,-0.1242806378734289,1.0,0.9863433396980132,0.02031302199511191,-0.1634447838592468,-3.469446951953614e-18,1.0127219497184852,0.12586172989943592
0.3623188405797102,0.30434782608695654,0.18700892416620682,0.16569840527459917,-0.12041063334586839,1.0,0.9855929662313823,0.020219550138277483,-0.16792163263686768,0.0,1.0134173129704183,0.1220262204984362
0.3913043478260869,0.30434782608695654,0.1904391822813524,0.17007888811221097,-0.11622448615534742,1.0,0.9848082111475566,0.02004692418369216,-0.17248451549957497,0.0,1.0141441857602977,0.1178683868774238
0.42028985507246386,0.30434782608695654,0.19374352101904865,0.17452961131309117,-0.11172219630186594,1.0,0.9839883766945154,0.019789420892454678,-0.17713061099322627,0.0,1.0149029133828136,0.11338718251629035
0.4492753623188406,0.30434782608695654,0.19691277682384736,0.17904716923693692,-0.10690376378542396,1.0,0.9831327667413523,0.01944120774990075,-0.18185709334727376,0.0,1.015693764510839,0.10858148627959477
0.4782608695652175,0.30434782608695654,0.1999377861403006,0.18362815624344547,-0.10176918860602154,1.0,0.9822406842417708,0.018996351579201435,-0.18666112837689905,3.469446951953614e-18,1.0165169230879418,0.10345010246694944
0.5072463768115942,0.30434782608695654,0.20280938541296017,0.18826916669231383,-0.0963184707636586,1.0,0.9813114283228749,0.018448827272016917,-0.19153986899652628,-3.469446951953614e-18,1.017372479847206,0.09799176145591396
0.536231884057971,0.30434782608695654,0.2055184110863778,0.19296679494323932,-0.09055161025833519,1.0,0.9803442910137145,0.01779252667784743,-0.19649045033088897,-3.469446951953614e-18,1.0182604234510197,0.0922051210058241
0.5652173913043479,0.30434782608695654,0.2080556996051056,0.19771763535591916,-0.08446860709005125,1.0,0.9793385536312453,0.017021267697954732,-0.20150998441123227,0.0,1.0191806312496423,0.08608876829481643
0.5942028985507246,0.30434782608695654,0.21041208741369521,0.20251828229005037,-0.07806946125880687,1.0,0.9782934828447444,0.01612880363406061,-0.20659555444596012,0.0,1.0201328596599009,0.0796412227660545
0.6231884057971016,0.30434782608695654,0.2125784109566986,0.2073653301053302,-0.07135417276460196,1.0,0.9772083264433383,0.015108832846423859,-0.2117442086571171,0.0,1.0211167341694134,0.07286093986275045
0.6521739130434783,0.30434782608695654,0.21454550667866767,0.21225537316145576,-0.06432274160743662,1.0,0.9760823088351479,0.013955008780308264,-0.21695295367657133,0.0,1.0221317389762485,0.06574631573492909
0.681159420289855,0.30434782608695654,0.21630421102415423,0.21718500581812436,-0.056975167787310745,1.0,0.9749146263106673,0.012660950424223981,-0.2222187474986914,0.0,1.023177206279067,0.05829569300390169
0.7101449275362319,0.30434782608695654,0.21784536043771022,0.22215082243503306,-0.04931145130422439,1.0,0.9737044421073862,0.01122025326758762,-0.2275384919897178,0.0,1.024252305238529,0.050507367673009305
0.7391304347826086,0.30434782608695654,0.21915979136388744,0.22714941737187905,-0.04133159215817758,1.0,0.9724508813173547,0.009626500829522265,-0.2329090249579856,0.0,1.0253560306372136,0.042379597275225146
0.7681159420289856,0.30434782608695654,0.22023834024723787,0.23217738498835955,-0.03303559034917022,1.0,0.9711530256844011,0.00787327683431732,-0.23832711179369254,0.0,1.026487191272489,0.03391061034954828
0.7971014492753623,0.30434782608695654,0.22107184353231316,0.2372313196441717,-0.024423445877202445,1.0,0.9698099083430509,0.005954178112483003,-0.24378943669209288,-8.673617379884035e-19,1.0276443981248253,0.02509861733861195
0.8260869565217392,0.30434782608695654,0.22165113766366534,0.2423078156990127,-0.01549515874227408,1.0,0.9684205085568626,0.003862828309243821,-0.24929259347987226,-4.336808689942018e-19,1.0288260523529122,0.01594182299939556
0.855072463768116,0.30434782608695654,0.2219670590858464,0.2474034675125797,-0.006250728944385326,1.0,0.9669837465199121,0.001592892484584225,-0.25483307607107647,2.168404344971009e-19,1.0300303331767935,0.0064384404171830435
0.8840579710144927,0.30434782608695654,0.22201044424340788,0.2525148694445698,0.0033098435164639287,1.0,0.9654984782914859,-0.0008619073095706828,-0.26040726858637153,0.0,1.0312551857209906,-0.0034132932902784254
0.9130434782608696,0.30434782608695654,0.22177212958090195,0.2576386158546804,0.013186558640273738,1.0,0.9639634909406836,-0.0035077753889534197,-0.2660114351776471,4.336808689942018e-19,1.0324983089013695,-0.013615099496311378
0.9420289855072463,0.30434782608695654,0.22124295154288035,0.26277130110260843,0.02337941642704395,1.0,0.9623774979845272,-0.006350824647904362,-0.2716417096090601,0.0,1.0337571434522368,-0.024168638741201252
0.9710144927536233,0.30434782608695654,0.2204137465738949,0.2679095195480512,0.033888416876774755,1.0,0.960739135210302,-0.009397057538272423,-0.2772940846555935,0.0,1.0350288602038986,-0.03507548949408274
1.0,0.30434782608695654,0.21927535111849766,0.2730498655507059,0.044713559989465954,1.0,0.95904695698009,-0.012652345736481923,-0.28296440139104745,0.0,1.0363103487355514,-0.04633712494589146
-1.0,0.33333333333333326,0.04964916826745331,0.10032272274174171,0.036545284434369954,1.0,0.9948972939582293,-0.0036846994779775183,-0.10082557941489567,0.0,1.0050123906071453,-0.03672846367480424
-0.9710144927536232,0.33333333333333326,0.04874182658545869,0.09751991511632294,0.026113366936912883,1.0,0.9951848812951849,-0.0025586443242118883,-0.097982168687527,0.0,1.0047400940685058,-0.02623714675263926
-0.9420289855072463,0.33333333333333326,0.048132331035536324,0.09496429817928423,0.015993901321387238,1.0,0.99543867413842,-0.0015256805659426935,-0.09539139546287778,0.0,1.0044974510608948,-0.016065833109852958
-0.9130434782608696,0.33333333333333326,0.04781162504139828,0.09265189644409538,0.0061868875877930446,1.0,0.9956613940224666,-0.0005756817298035461,-0.09304868104269216,0.0,1.0042825307826937,-0.0062133831243368345
-0.8840579710144928,0.33333333333333326,0.047770652026756705,0.09057873442422623,-0.003307674263869775,1.0,0.9958554582620245,0.0003008313968343034,-0.09094952308948018,5.421010862427522e-20,1.0040935509599564,0.0033212143970278627
-0.855072463768116,0.33333333333333326,0.04800035541532376,0.0887408366331466,-0.012489784233601175,1.0,0.9960230041912125,0.0011127084916881052,-0.08908948872748287,0.0,1.0039288799561086,0.012538855096532691
-0.8260869565217391,0.33333333333333326,0.04849167863081155,0.08713422758432626,-0.02135944232140116,1.0,0.9961659109667028,0.0018681867090439574,-0.08746420814424177,2.168404344971009e-19,1.003787037184626,0.02144033132371518
-0.7971014492753623,0.33333333333333326,0.04923556509693222,0.08575493179123503,-0.02991664852726973,1.0,0.9962858192414716,0.0025749070529878116,-0.08606936872092218,0.0,1.003666692085449,0.030026343665647826
-0.7681159420289855,0.33333333333333326,0.050222958237397884,0.08459897376734271,-0.03816140285120688,1.0,0.9963841489828281,0.003239930185348934,-0.08490070970350788,-4.336808689942018e-19,1.0035666618958639,0.038297511672649
-0.7391304347826086,0.33333333333333326,0.05144480147592071,0.08366237802611921,-0.046093705293212606,1.0,0.9964621156780266,0.003869751736866562,-0.0839540174140956,-4.336808689942018e-19,1.003485908419736,0.046254383728591045
-0.7101449275362319,0.33333333333333326,0.05289203823621282,0.0829411690810342,-0.05371355585328689,1.0,0.9965207451429455,0.0044703171847626936,-0.08322512099129892,0.0,1.0034235339748743,0.05389744603666193
-0.681159420289855,0.33333333333333326,0.054555611941986326,0.0824313714455576,-0.061020954531429826,1.0,0.9965608871238446,0.005047036354051063,-0.08270988864081937,-8.673617379884035e-19,1.0033787766766167,0.061227130709385506
-0.6521739130434783,0.33333333333333326,0.05642646601695337,0.08212900963315918,-0.06801590132764129,1.0,0.9965832278589253,0.005604797593811815,-0.08240422437119208,-8.673617379884035e-19,1.0033510051961199,0.068243822966409
-0.6231884057971014,0.33333333333333326,0.058495543884826105,0.08203010815730877,-0.07469839624192136,1.0,0.9965883017451691,0.0061479816735304504,-0.08230406518527304,0.0,1.0033397131141033,0.07494786745545298
-0.5942028985507246,0.33333333333333326,0.06075378896931662,0.08213069153147615,-0.08106843927427,1.0,0.9965765022365621,0.0066804754386026195,-0.08240537869492338,0.0,1.0033445129746894,0.08133957372126062
-0.5652173913043479,0.33333333333333326,0.06319214469413709,0.08242678426913116,-0.08712603042468722,1.0,0.9965480920822017,0.00720568525836759,-0.08270416112434124,-8.673617379884035e-19,1.0033651301293574,0.08741922085472063
-0.536231884057971,0.33333333333333326,0.06580155448299964,0.08291441088374363,-0.09287116969317306,1.0,0.9965032129968037,0.007726550294640231,-0.08319643566638753,8.673617379884035e-19,1.0034013964477095,0.09318706135986204
-0.5072463768115942,0.33333333333333326,0.06857296175961639,0.08358959588878331,-0.09830385707972744,1.0,0.9964418948416676,0.008245555613724661,-0.08387825115587542,0.0,1.003453243959645,0.09864332428039782
-0.4782608695652174,0.33333333333333326,0.07149730994769944,0.08444836379772006,-0.10342409258435042,1.0,0.9963640643811146,0.008764745160349334,-0.0847456810239935,0.0,1.0035206984825142,0.10378821763016757
-0.4492753623188406,0.33333333333333326,0.07456554247096103,0.0854867391240237,-0.108231876207042,1.0,0.9962695536676872,0.009285734607881794,-0.08579482249867555,0.0,1.0036038732768233,0.10862193017340502
-0.42028985507246375,0.33333333333333326,0.07776860275311319,0.08670074638116403,-0.11272720794780217,1.0,0.9961581080989076,0.009809724095566885,-0.08702179601670995,0.0,1.0037029627649858,0.11314463260143369
-0.3913043478260869,0.33333333333333326,0.0810974342178681,0.08808641008261082,-0.11691008780663088,1.0,0.9960293941790394,0.010337510860377763,-0.08842274481459625,0.0,1.003818236339408,0.11735647815233753
-0.3623188405797101,0.33333333333333326,0.08454298028893786,0.08963975474183397,-0.1207805157835282,1.0,0.9958830070110248,0.01086950176836091,-0.0899938346665288,0.0,1.0039500322788095,0.12125760271952442
-0.33333333333333337,0.33333333333333326,0.08809618439003467,0.09135680487230323,-0.1243384918784941,1.0,0.9957184775364807,0.011405725748074122,-0.09173125373934897,1.734723475976807e-18,1.0040987517850382,0.12484812449403003
-0.30434782608695654,0.33333333333333326,0.09174798994487056,0.0932335849874884,-0.12758401609152858,1.0,0.9955352795352806,0.011945846126837118,-0.09363121253580219,0.0,1.0042648531467189,0.1281281431840276
-0.2753623188405797,0.33333333333333326,0.09548934037715773,0.09526611960085934,-0.13051708842263166,1.0,0.9953328363907572,0.012489172869011782,-0.0956899438989183,0.0,1.0044488460308312,0.1310977388534163
-0.24637681159420288,0.33333333333333326,0.09931117911060831,0.09745043322588585,-0.1331377088718033,1.0,0.9951105276218524,0.013034674714377805,-0.09790370305176828,0.0,1.0046512858986656,0.13375697041965937
-0.21739130434782605,0.33333333333333326,0.10320444956893449,0.09978255037603775,-0.13544587743904357,1.0,0.9948676951795946,0.013580991213843513,-0.10026876764821092,1.734723475976807e-18,1.0048727685385954,0.136105873849311
-0.18840579710144922,0.33333333333333326,0.10716009517584822,0.10225849556478482,-0.1374415941243524,1.0,0.9946036495019962,0.014126444659206568,-0.10278143781150742,0.0,1.0051139247045864,0.13814446008798267
-0.1594202898550725,0.33333333333333326,0.11116905935506181,0.10487429330559689,-0.1391248589277298,1.0,0.9943176753188285,0.014669051903432925,-0.10543803613883952,0.0,1.0053754148464193,0.13987271275991592
-0.13043478260869568,0.33333333333333326,0.11522228553028734,0.10762596811194378,-0.1404956718491758,1.0,0.9940090371956563,0.015206536067933787,-0.10823490765080813,0.0,1.0056579239150814,0.14129058567089667
-0.10144927536231885,0.33333333333333326,0.11931071712523691,0.11050954449729528,-0.14155403288869037,1.0,0.9936769848049863,0.01573633813357255,-0.11116841966591419,0.0,1.0059621562247507,0.14239800014701626
-0.07246376811594202,0.33333333333333326,0.12342529756362268,0.1135210469751212,-0.1422999420462735,1.0,0.9933207579113288,0.01625562841261073,-0.1142349615808324,0.0,1.0062888303511477,0.14319484224078066
-0.04347826086956519,0.33333333333333326,0.12755697026915683,0.11665650005889142,-0.14273339932192525,1.0,0.9929395910563684,0.01676131789949139,-0.11743094453798723,0.0,1.0066386740447797,0.1436809598353269
